7.854 2.2204e-15 1.1102e-15 7.4015e-16 5.5511e-16 4.4409e-16 3.7007e-16 3.1721e-16 2.7756e-16 2.4672e-16 2.2204e-16 2.0186e-16 1.8504e-16 1.708e-16 1.586e-16 1.4803e-16 1.3878e-16 1.3061e-16 1.2336e-16 1.1687e-16 1.1102e-16 1.0574e-16 1.0093e-16 9.6541e-17 9.2519e-17 8.8818e-17 8.5402e-17 8.2239e-17 7.9302e-17 7.6567e-17 7.4015e-17 7.1627e-17 6.9389e-17 6.7286e-17 6.5307e-17 6.3441e-17 6.1679e-17 6.0012e-17 5.8433e-17 5.6935e-17 5.5511e-17 5.4157e-17 5.2868e-17 5.1638e-17 5.0465e-17 4.9343e-17 4.8271e-17 4.7244e-17 4.6259e-17 4.5315e-17
15.708 7.854 4.6365 3.2175 2.4498 1.974 1.6515 1.419 1.2435 1.1066 0.99669 0.9066 0.83141 0.76772 0.71307 0.66568 0.62419 0.58756 0.55499 0.52583 0.49958 0.47583 0.45423 0.43451 0.41643 0.39979 0.38443 0.3702 0.35699 0.34469 0.33321 0.32247 0.3124 0.30294 0.29403 0.28564 0.27771 0.2702 0.2631 0.25635 0.24995 0.24385 0.23805 0.23252 0.22723 0.22219 0.21736 0.21273 0.2083 0.20405
15.708 11.071 7.854 5.88 4.6365 3.8051 3.2175 2.783 2.4498 2.1867 1.974 1.7985 1.6515 1.5265 1.419 1.3255 1.2435 1.1711 1.1066 1.0488 0.99669 0.94952 0.9066 0.86738 0.83141 0.7983 0.76772 0.73939 0.71307 0.68856 0.66568 0.64427 0.62419 0.60532 0.58756 0.57081 0.55499 0.54002 0.52583 0.51237 0.49958 0.48742 0.47583 0.46478 0.45423 0.44415 0.43451 0.42528 0.41643 0.40794
15.708 12.49 9.8279 7.854 6.435 5.4042 4.6365 4.0489 3.5877 3.2175 2.9146 2.6625 2.4498 2.268 2.1109 1.974 1.8535 1.7467 1.6515 1.566 1.4889 1.419 1.3553 1.297 1.2435 1.1943 1.1488 1.1066 1.0674 1.0308 0.99669 0.96474 0.93477 0.9066 0.88007 0.85505 0.83141 0.80904 0.78784 0.76772 0.7486 0.73041 0.71307 0.69655 0.68076 0.66568 0.65125 0.63743 0.62419 0.61148
15.708 13.258 11.071 9.273 7.854 6.7474 5.88 5.1915 4.6365 4.1822 3.8051 3.4877 3.2175 2.985 2.783 2.606 2.4498 2.3109 2.1867 2.075 1.974 1.8822 1.7985 1.7219 1.6515 1.5866 1.5265 1.4708 1.419 1.3707 1.3255 1.2832 1.2435 1.2062 1.1711 1.1379 1.1066 1.0769 1.0488 1.0221 0.99669 0.97253 0.94952 0.92756 0.9066 0.88656 0.86738 0.84902 0.83141 0.81452
15.708 13.734 11.903 10.304 8.9606 7.854 6.9474 6.2025 5.586 5.071 4.6365 4.2663 3.9479 3.6717 3.4302 3.2175 3.0288 2.8605 2.7095 2.5732 2.4498 2.3374 2.2348 2.1406 2.054 1.974 1.8999 1.8311 1.7671 1.7074 1.6515 1.5991 1.55 1.5037 1.4601 1.419 1.3801 1.3432 1.3083 1.2751 1.2435 1.2135 1.1849 1.1576 1.1315 1.1066 1.0827 1.0598 1.0379 1.0169
15.708 14.056 12.49 11.071 9.8279 8.7606 7.854 7.0863 6.435 5.88 5.4042 4.9935 4.6365 4.3241 4.0489 3.8051 3.5877 3.3929 3.2175 3.0588 2.9146 2.783 2.6625 2.5518 2.4498 2.3554 2.268 2.1867 2.1109 2.0402 1.974 1.9118 1.8535 1.7985 1.7467 1.6978 1.6515 1.6076 1.566 1.5265 1.4889 1.4531 1.419 1.3864 1.3553 1.3255 1.297 1.2697 1.2435 1.2184
15.708 14.289 12.925 11.659 10.517 9.5055 8.6217 7.854 7.1883 6.6104 6.1073 5.6673 5.2807 4.9394 4.6365 4.3663 4.1241 3.9061 3.7089 3.5299 3.3667 3.2175 3.0805 2.9544 2.8379 2.7301 2.6299 2.5367 2.4498 2.3685 2.2923 2.2208 2.1536 2.0902 2.0305 1.974 1.9205 1.8698 1.8217 1.776 1.7325 1.691 1.6515 1.6138 1.5777 1.5432 1.5102 1.4785 1.4481 1.419
15.708 14.464 13.258 12.12 11.071 10.122 9.273 8.5197 7.854 7.2664 6.7474 6.288 5.88 5.5165 5.1915 4.8996 4.6365 4.3984 4.1822 3.9852 3.8051 3.6398 3.4877 3.3474 3.2175 3.097 2.985 2.8806 2.783 2.6917 2.606 2.5255 2.4498 2.3784 2.3109 2.2471 2.1867 2.1294 2.075 2.0232 1.974 1.927 1.8822 1.8394 1.7985 1.7594 1.7219 1.686 1.6515 1.6184
15.708 14.601 13.521 12.49 11.526 10.637 9.8279 9.0975 8.4415 7.854 7.3282 6.8573 6.435 6.0554 5.7134 5.4042 5.1239 4.869 4.6365 4.4237 4.2285 4.0489 3.8832 3.7299 3.5877 3.4556 3.3324 3.2175 3.11 3.0092 2.9146 2.8255 2.7417 2.6625 2.5877 2.5169 2.4498 2.3861 2.3256 2.268 2.2131 2.1608 2.1109 2.0632 2.0176 1.974 1.9321 1.892 1.8535 1.8165
15.708 14.711 13.734 12.793 11.903 11.071 10.304 9.6007 8.9606 8.3798 7.854 7.3782 6.9474 6.557 6.2025 5.88 5.586 5.3172 5.071 4.8448 4.6365 4.4442 4.2663 4.1013 3.9479 3.8051 3.6717 3.5471 3.4302 3.3206 3.2175 3.1204 3.0288 2.9423 2.8605 2.783 2.7095 2.6396 2.5732 2.51 2.4498 2.3923 2.3374 2.285 2.2348 2.1867 2.1406 2.0964 2.054 2.0132
15.708 14.801 13.909 13.045 12.22 11.442 10.714 10.041 9.42 8.8507 8.3298 7.854 7.4195 7.0226 6.6597 6.3275 6.0229 5.743 5.4855 5.248 5.0284 4.8251 4.6365 4.4611 4.2976 4.1451 4.0024 3.8688 3.7433 3.6254 3.5144 3.4098 3.311 3.2175 3.129 3.0451 2.9655 2.8898 2.8177 2.7491 2.6837 2.6212 2.5615 2.5044 2.4498 2.3974 2.3472 2.299 2.2528 2.2083
15.708 14.877 14.056 13.258 12.49 11.76 11.071 10.427 9.8279 9.273 8.7606 8.2885 7.854 7.4542 7.0863 6.7474 6.435 6.1466 5.88 5.6332 5.4042 5.1915 4.9935 4.8089 4.6365 4.4752 4.3241 4.1822 4.0489 3.9234 3.8051 3.6933 3.5877 3.4877 3.3929 3.303 3.2175 3.1362 3.0588 2.985 2.9146 2.8473 2.783 2.7215 2.6625 2.606 2.5518 2.4998 2.4498 2.4017
15.708 14.94 14.181 13.44 12.723 12.036 11.384 10.769 10.191 9.6525 9.151 8.6854 8.2538 7.854 7.4838 7.1409 6.8232 6.5285 6.2549 6.0005 5.7638 5.5431 5.3371 5.1445 4.9642 4.7952 4.6365 4.4872 4.3467 4.2142 4.0891 3.9708 3.8588 3.7527 3.652 3.5564 3.4654 3.3788 3.2962 3.2175 3.1423 3.0705 3.0017 2.9359 2.8728 2.8123 2.7543 2.6985 2.6449 2.5933
15.708 14.995 14.289 13.597 12.925 12.278 11.659 11.071 10.517 9.9946 9.5055 9.0483 8.6217 8.2242 7.854 7.5093 7.1883 6.8892 6.6104 6.3503 6.1073 5.88 5.6673 5.4679 5.2807 5.1049 4.9394 4.7835 4.6365 4.4976 4.3663 4.2419 4.1241 4.0123 3.9061 3.8051 3.7089 3.6173 3.5299 3.4465 3.3667 3.2905 3.2175 3.1476 3.0805 3.0162 2.9544 2.895 2.8379 2.783
15.708 15.042 14.382 13.734 13.102 12.49 11.903 11.342 10.808 10.304 9.8279 9.3805 8.9606 8.5671 8.1987 7.854 7.5315 7.2298 6.9474 6.6829 6.435 6.2025 5.9842 5.779 5.586 5.4042 5.2328 5.071 4.9181 4.7735 4.6365 4.5066 4.3834 4.2663 4.1549 4.0489 3.9479 3.8516 3.7596 3.6717 3.5877 3.5073 3.4302 3.3564 3.2855 3.2175 3.1521 3.0893 3.0288 2.9706
15.708 15.084 14.464 13.854 13.258 12.679 12.12 11.584 11.071 10.584 10.122 9.6851 9.273 8.8848 8.5197 8.1765 7.854 7.551 7.2664 6.9989 6.7474 6.5108 6.288 6.078 5.88 5.6931 5.5165 5.3496 5.1915 5.0417 4.8996 4.7647 4.6365 4.5145 4.3984 4.2878 4.1822 4.0815 3.9852 3.8932 3.8051 3.7207 3.6398 3.5622 3.4877 3.4162 3.3474 3.2812 3.2175 3.1562
15.708 15.12 14.537 13.961 13.397 12.847 12.315 11.802 11.31 10.839 10.391 9.9649 9.5613 9.1795 8.8187 8.4782 8.1569 7.854 7.5683 7.299 7.0449 6.8052 6.5789 6.3651 6.163 5.9718 5.7907 5.6192 5.4566 5.3022 5.1555 5.016 4.8833 4.757 4.6365 4.5215 4.4118 4.3069 4.2066 4.1106 4.0187 3.9306 3.846 3.7649 3.687 3.612 3.54 3.4706 3.4038 3.3395
15.708 15.153 14.601 14.056 13.521 12.998 12.49 11.999 11.526 11.071 10.637 10.222 9.8279 9.4531 9.0975 8.7606 8.4415 8.1396 7.854 7.5838 7.3282 7.0863 6.8573 6.6405 6.435 6.2402 6.0554 5.88 5.7134 5.5549 5.4042 5.2607 5.1239 4.9935 4.869 4.7501 4.6365 4.5278 4.4237 4.3241 4.2285 4.1369 4.0489 3.9644 3.8832 3.8051 3.7299 3.6575 3.5877 3.5204
15.708 15.182 14.659 14.142 13.633 13.135 12.649 12.178 11.723 11.284 10.863 10.46 10.075 9.7075 9.3577 9.0251 8.709 8.409 8.1242 7.854 7.5976 7.3544 7.1236 6.9045 6.6964 6.4987 6.3108 6.1321 5.962 5.8 5.6457 5.4985 5.3581 5.224 5.0959 4.9734 4.8562 4.744 4.6365 4.5334 4.4345 4.3395 4.2483 4.1606 4.0763 3.9952 3.917 3.8417 3.7691 3.6991
15.708 15.208 14.711 14.219 13.734 13.258 12.793 12.341 11.903 11.479 11.071 10.68 10.304 9.9442 9.6007 9.273 8.9606 8.663 8.3798 8.1103 7.854 7.6101 7.3782 7.1574 6.9474 6.7474 6.557 6.3755 6.2025 6.0375 5.88 5.7297 5.586 5.4486 5.3172 5.1915 5.071 4.9555 4.8448 4.7385 4.6365 4.5384 4.4442 4.3535 4.2663 4.1822 4.1013 4.0232 3.9479 3.8752
15.708 15.232 14.758 14.289 13.826 13.371 12.925 12.49 12.068 11.659 11.264 10.883 10.517 10.165 9.8279 9.5055 9.1972 8.9028 8.6217 8.3536 8.0978 7.854 7.6215 7.3997 7.1883 6.9866 6.7941 6.6104 6.435 6.2674 6.1073 5.9541 5.8076 5.6673 5.5329 5.4042 5.2807 5.1623 5.0486 4.9394 4.8345 4.7336 4.6365 4.543 4.453 4.3663 4.2826 4.202 4.1241 4.0489
15.708 15.254 14.801 14.353 13.909 13.473 13.045 12.627 12.22 11.825 11.442 11.071 10.714 10.371 10.041 9.7238 9.42 9.1291 8.8507 8.5844 8.3298 8.0865 7.854 7.6318 7.4195 7.2165 7.0226 6.8371 6.6597 6.49 6.3275 6.1719 6.0229 5.88 5.743 5.6116 5.4855 5.3644 5.248 5.1361 5.0284 4.9249 4.8251 4.7291 4.6365 4.5472 4.4611 4.3779 4.2976 4.2201
15.708 15.273 14.841 14.411 13.986 13.567 13.156 12.754 12.361 11.978 11.607 11.247 10.899 10.563 10.24 9.9289 9.6299 9.3429 9.0675 8.8035 8.5505 8.3082 8.0762 7.854 7.6412 7.4376 7.2425 7.0557 6.8767 6.7052 6.5408 6.3832 6.232 6.0869 5.9476 5.8138 5.6852 5.5617 5.4428 5.3284 5.2183 5.1123 5.0101 4.9116 4.8166 4.725 4.6365 4.551 4.4684 4.3886
15.708 15.292 14.877 14.464 14.056 13.654 13.258 12.87 12.49 12.12 11.76 11.41 11.071 10.744 10.427 10.122 9.8279 9.545 9.273 9.0116 8.7606 8.5197 8.2885 8.0667 0 0 0 7.2664 7.0863 6.9134 6.7474 6.5881 6.435 6.288 6.1466 6.0107 5.88 5.7542 5.6332 5.5165 5.4042 5.2959 5.1915 5.0907 4.9935 4.8996 4.8089 4.7212 4.6365 4.5545
15.708 15.308 14.91 14.514 14.121 13.734 13.353 12.978 12.611 12.252 11.903 11.563 11.233 10.913 10.603 10.304 10.015 9.7362 9.4677 9.2093 8.9606 8.7214 8.4914 8.2704 0 0 0 7.4696 7.2885 7.1146 6.9474 6.7866 6.632 6.4833 6.3402 6.2025 6.0699 5.9421 5.8191 5.7004 5.586 5.4756 5.3691 5.2663 5.167 5.071 4.9782 4.8885 4.8018 4.7178
15.708 15.324 14.94 14.559 14.181 13.808 13.44 13.078 12.723 12.376 12.036 11.706 11.384 11.071 10.769 10.475 10.191 9.9172 9.6525 9.3972 9.151 8.9138 8.6854 8.4655 0 0 0 7.6653 7.4838 7.3091 7.1409 6.979 6.8232 6.6731 6.5285 6.3891 6.2549 6.1254 6.0005 5.88 5.7638 5.6515 5.5431 5.4383 5.3371 5.2392 5.1445 5.0529 4.9642 4.8784
15.708 15.338 14.969 14.601 14.237 13.877 13.521 13.171 12.827 12.49 12.161 11.839 11.526 11.221 10.924 10.637 10.358 10.089 9.8279 9.5759 9.3325 9.0975 8.8709 8.6523 8.4415 8.2384 8.0426 7.854 7.6722 7.497 7.3282 7.1654 7.0085 6.8573 6.7114 6.5707 6.435 6.304 6.1776 6.0554 5.9375 5.8235 5.7134 5.6069 5.5039 5.4042 5.3077 5.2143 5.1239 5.0363
15.708 15.351 14.995 14.641 14.289 13.941 13.597 13.258 12.925 12.598 12.278 11.965 11.659 11.361 11.071 10.79 10.517 10.251 9.9946 9.746 9.5055 9.273 9.0483 8.8313 8.6217 8.4194 8.2242 8.0358 7.854 7.6786 7.5093 7.3459 7.1883 7.0361 6.8892 6.7474 6.6104 6.4781 6.3503 6.2267 6.1073 5.9918 5.88 5.7719 5.6673 5.566 5.4679 5.3728 5.2807 5.1915
15.708 15.363 15.019 14.677 14.337 14.001 13.668 13.339 13.016 12.699 12.387 12.083 11.785 11.494 11.21 10.935 10.666 10.406 10.153 9.9079 9.6705 9.4405 9.218 9.0027 8.7946 8.5934 8.3989 8.211 8.0294 7.854 7.6845 7.5208 7.3626 7.2097 7.062 6.9192 6.7812 6.6477 6.5187 6.3939 6.2731 6.1562 6.0431 5.9335 5.8274 5.7246 5.625 5.5284 5.4348 5.344
15.708 15.375 15.042 14.711 14.382 14.056 13.734 13.416 13.102 12.793 12.49 12.194 11.903 11.619 11.342 11.071 10.808 10.552 10.304 10.062 9.8279 9.6007 9.3805 9.1671 8.9606 8.7606 8.5671 8.3798 8.1987 8.0235 7.854 7.6901 7.5315 7.3782 7.2298 7.0863 6.9474 6.813 6.6829 6.557 6.435 6.3169 6.2025 6.0916 5.9842 5.88 5.779 5.681 5.586 5.4937
15.708 15.385 15.064 14.743 14.425 14.109 13.796 13.487 13.182 12.882 12.588 12.298 12.015 11.737 11.466 11.201 10.943 10.692 10.447 10.209 9.9783 9.7539 9.536 9.3248 9.1199 8.9213 8.7289 8.5425 8.362 8.1872 8.0179 7.854 7.6953 7.5416 7.3928 7.2487 7.1091 6.9739 6.8429 6.7161 6.5931 6.4739 6.3584 6.2464 6.1377 6.0323 5.93 5.8308 5.7344 5.6408
15.708 15.396 15.084 14.773 14.464 14.158 13.854 13.554 13.258 12.966 12.679 12.397 12.12 11.849 11.584 11.325 11.071 10.825 10.584 10.35 10.122 9.9004 9.6851 9.476 9.273 9.0759 8.8848 8.6994 8.5197 8.3454 8.1765 8.0127 7.854 7.7001 7.551 7.4065 7.2664 7.1306 6.9989 6.8712 6.7474 6.6273 6.5108 6.3977 6.288 6.1814 6.078 5.9776 5.88 5.7852
15.708 15.405 15.103 14.801 14.502 14.204 13.909 13.618 13.33 13.045 12.766 12.49 12.22 11.955 11.696 11.442 11.193 10.951 10.714 10.484 10.259 10.041 9.8279 9.6211 9.42 9.2246 9.0349 8.8507 8.6718 8.4983 8.3298 8.1664 8.0078 7.854 7.7047 7.5599 7.4195 7.2832 7.1509 7.0226 6.898 6.7771 6.6597 6.5457 6.435 6.3275 6.223 6.1215 6.0229 5.927
15.708 15.414 15.12 14.828 14.537 14.248 13.961 13.678 13.397 13.12 12.847 12.579 12.315 12.056 11.802 11.553 11.31 11.071 10.839 10.612 10.391 10.175 9.9649 9.7604 9.5613 9.3677 9.1795 8.9965 8.8187 8.646 8.4782 8.3152 8.1569 8.0032 7.854 7.7091 7.5683 7.4317 7.299 7.1701 7.0449 6.9233 6.8052 6.6904 6.5789 6.4705 6.3651 6.2626 6.163 6.0661
15.708 15.422 15.137 14.853 14.57 14.289 14.01 13.734 13.461 13.191 12.925 12.663 12.405 12.152 11.903 11.659 11.42 11.186 10.958 10.735 10.517 10.304 10.096 9.8942 9.6972 9.5055 9.3188 9.1372 8.9606 8.7887 8.6217 8.4593 8.3014 8.148 7.9989 7.854 7.7131 7.5763 7.4433 7.314 7.1883 7.0661 6.9474 6.8319 6.7196 6.6104 6.5042 6.4009 6.3003 6.2025
15.708 15.43 15.153 14.877 14.601 14.328 14.056 13.787 13.521 13.258 12.998 12.743 12.49 12.243 11.999 11.76 11.526 11.296 11.071 10.852 10.637 10.427 10.222 10.023 9.8279 9.6381 9.4531 9.273 9.0975 8.9268 8.7606 8.5989 8.4415 8.2885 8.1396 7.9948 7.854 7.717 7.5838 7.4542 7.3282 7.2055 7.0863 6.9702 6.8573 6.7474 6.6405 6.5364 6.435 6.3363
15.708 15.438 15.168 14.899 14.631 14.365 14.1 13.838 13.579 13.322 13.068 12.818 12.572 12.329 12.091 11.856 11.626 11.401 11.18 10.964 10.752 10.546 10.344 10.146 9.9537 9.7658 9.5826 9.4039 9.2298 9.0602 8.895 8.7341 8.5774 8.4248 8.2763 8.1317 7.991 7.854 7.7207 7.5909 7.4646 7.3416 7.2219 7.1054 6.9919 6.8814 6.7739 6.6691 6.567 6.4676
15.708 15.445 15.182 14.92 14.659 14.4 14.142 13.886 13.633 13.382 13.135 12.89 12.649 12.412 12.178 11.948 11.723 11.501 11.284 11.071 10.863 10.659 10.46 10.265 10.075 9.8889 9.7075 9.5304 9.3577 9.1893 9.0251 8.865 8.709 8.557 8.409 8.2647 8.1242 7.9873 7.854 7.7241 7.5976 7.4744 7.3544 7.2375 7.1236 7.0126 6.9045 6.7991 6.6964 6.5963
15.708 15.452 15.196 14.94 14.686 14.433 14.181 13.932 13.685 13.44 13.198 12.959 12.723 12.49 12.261 12.036 11.815 11.597 11.384 11.175 10.969 10.769 10.572 10.38 10.191 10.008 9.8279 9.6525 9.4813 9.3141 9.151 8.9919 8.8367 8.6854 8.5378 8.394 8.2538 8.1171 7.9838 7.854 7.7274 7.604 7.4838 7.3666 7.2523 7.1409 7.0323 6.9264 6.8232 6.7225
15.708 15.458 15.208 14.959 14.711 14.464 14.219 13.976 13.734 13.495 13.258 13.024 12.793 12.566 12.341 12.12 11.903 11.689 11.479 11.273 11.071 10.873 10.68 10.49 10.304 10.122 9.9442 9.7705 9.6007 9.4349 9.273 9.1149 8.9606 8.81 8.663 8.5197 8.3798 8.2434 8.1103 7.9806 7.854 7.7305 7.6101 7.4927 7.3782 7.2664 7.1574 7.0511 6.9474 6.8462
15.708 15.464 15.221 14.978 14.735 14.494 14.255 14.017 13.781 13.547 13.316 13.087 12.861 12.638 12.417 12.201 11.987 11.777 11.571 11.368 11.17 10.974 10.783 10.596 10.412 10.232 10.056 9.8844 9.7162 9.5518 9.3911 9.234 9.0807 8.9309 8.7846 8.6418 8.5024 8.3664 8.2335 8.1039 7.9774 7.854 7.7335 7.6159 7.5012 7.3892 7.2799 7.1732 7.0691 6.9674
15.708 15.47 15.232 14.995 14.758 14.523 14.289 14.056 13.826 13.597 13.371 13.146 12.925 12.706 12.49 12.278 12.068 11.862 11.659 11.46 11.264 11.071 10.883 10.698 10.517 10.339 10.165 9.9946 9.8279 9.6649 9.5055 9.3496 9.1972 9.0483 8.9028 8.7606 8.6217 8.486 8.3536 8.2242 8.0978 7.9745 7.854 7.7363 7.6215 7.5093 7.3997 7.2928 7.1883 7.0863
15.708 15.475 15.243 15.011 14.78 14.55 14.322 14.094 13.869 13.645 13.423 13.204 12.987 12.772 12.56 12.352 12.146 11.943 11.744 11.547 11.354 11.165 10.979 10.796 10.617 10.442 10.27 10.101 9.936 9.7745 9.6163 9.4616 9.3103 9.1623 9.0175 8.876 8.7377 8.6026 8.4705 8.3414 8.2153 8.092 7.9716 7.854 7.739 7.6267 7.517 7.4098 7.3051 7.2027
15.708 15.481 15.254 15.027 14.801 14.576 14.353 14.13 13.909 13.69 13.473 13.258 13.045 12.835 12.627 12.422 12.22 12.021 11.825 11.632 11.442 11.255 11.071 10.891 10.714 10.541 10.371 10.204 10.041 9.8806 9.7238 9.5703 9.42 9.273 9.1291 8.9883 8.8507 8.716 8.5844 8.4557 8.3298 8.2068 8.0865 7.9689 7.854 7.7416 7.6318 7.5244 7.4195 7.3169
15.708 15.486 15.264 15.042 14.821 14.601 14.382 14.165 13.949 13.734 13.521 13.311 13.102 12.896 12.692 12.49 12.292 12.096 11.903 11.713 11.526 11.342 11.161 10.983 10.808 10.637 10.469 10.304 10.142 9.9834 9.8279 9.6757 9.5265 9.3805 9.2375 9.0975 8.9606 8.8265 8.6954 8.5671 8.4415 8.3188 8.1987 8.0812 7.9663 7.854 7.7441 7.6366 7.5315 7.4287
15.708 15.491 15.273 15.057 14.841 14.625 14.411 14.198 13.986 13.776 13.567 13.361 13.156 12.954 12.754 12.556 12.361 12.168 11.978 11.791 11.607 11.425 11.247 11.071 10.899 10.73 10.563 10.4 10.24 10.083 9.9289 9.7779 9.6299 9.4849 9.3429 9.2037 9.0675 8.9341 8.8035 8.6757 8.5505 8.4281 8.3082 8.1909 8.0762 7.9639 7.854 7.7465 7.6412 7.5383
15.708 15.495 15.283 15.071 14.859 14.648 14.438 14.229 14.022 13.816 13.612 13.409 13.208 13.009 12.813 12.619 12.427 12.237 12.05 11.866 11.685 11.506 11.33 11.157 10.987 10.819 10.655 10.494 10.335 10.18 10.027 9.8772 9.7304 9.5864 9.4453 9.3071 9.1716 9.0389 8.9089 8.7815 8.6568 8.5347 8.4152 8.2981 8.1835 8.0713 7.9615 7.854 7.7487 7.6457
15.708 15.5 15.292 15.084 14.877 14.67 14.464 14.26 14.056 13.854 13.654 13.455 13.258 13.063 12.87 12.679 12.49 12.304 12.12 11.939 11.76 11.584 11.41 11.24 11.071 10.906 10.744 10.584 10.427 10.273 10.122 9.9736 9.8279 9.6851 9.545 9.4076 9.273 9.1409 9.0116 8.8848 8.7606 8.6389 8.5197 8.4029 8.2885 8.1765 8.0667 7.9592 7.854 7.7509
15.708 15.504 15.3 15.096 14.893 14.691 14.49 14.289 14.09 13.891 13.695 13.5 13.306 13.115 12.925 12.737 12.552 12.369 12.188 12.009 11.833 11.659 11.488 11.319 11.153 10.99 10.83 10.672 10.517 10.364 10.214 10.067 9.9227 9.781 9.6419 9.5055 9.3716 9.2404 9.1117 8.9855 8.8618 8.7405 8.6217 8.5052 8.3911 8.2793 8.1697 8.0623 7.9571 7.854
