0 0 0 0 0 0 0 0 0 0 0 0 0 0 0 0 0 0 0 0 0 0 0 0 0 0 0 0 0 0 0 0 0 0 0 0 0 0 0 0 0 0 0 0 0 0 0 0 0 0
0 0.04105 0.081931 0.12248 0.16252 0.20189 0.24043 0.27799 0.3144 0.34953 0.38321 0.41532 0.44573 0.4743 0.50092 0.52549 0.54789 0.56805 0.58587 0.60128 0.61422 0.62464 0.63249 0.63774 0.64037 0.64037 0.63774 0.63249 0.62464 0.61422 0.60128 0.58587 0.56805 0.54789 0.52549 0.50092 0.4743 0.44573 0.41532 0.38321 0.34953 0.3144 0.27799 0.24043 0.20189 0.16252 0.12248 0.081931 0.04105 7.8463e-17
0 0.081931 0.16353 0.24445 0.32437 0.40295 0.47988 0.55484 0.62752 0.69761 0.76485 0.82894 0.88962 0.94665 0.99978 1.0488 1.0935 1.1338 1.1693 1.2001 1.2259 1.2467 1.2624 1.2729 1.2781 1.2781 1.2729 1.2624 1.2467 1.2259 1.2001 1.1693 1.1338 1.0935 1.0488 0.99978 0.94665 0.88962 0.82894 0.76485 0.69761 0.62752 0.55484 0.47988 0.40295 0.32437 0.24445 0.16353 0.081931 1.566e-16
0 0.12248 0.24445 0.36542 0.48488 0.60236 0.71736 0.82941 0.93805 1.0428 1.1433 1.2391 1.3299 1.4151 1.4945 1.5678 1.6347 1.6948 1.748 1.794 1.8326 1.8637 1.8871 1.9028 1.9106 1.9106 1.9028 1.8871 1.8637 1.8326 1.794 1.748 1.6948 1.6347 1.5678 1.4945 1.4151 1.3299 1.2391 1.1433 1.0428 0.93805 0.82941 0.71736 0.60236 0.48488 0.36542 0.24445 0.12248 2.341e-16
0 0.16252 0.32437 0.48488 0.64341 0.79929 0.95188 1.1006 1.2447 1.3838 1.5171 1.6443 1.7646 1.8777 1.9832 2.0804 2.1691 2.2489 2.3194 2.3805 2.4317 2.4729 2.504 2.5248 2.5352 2.5352 2.5248 2.504 2.4729 2.4317 2.3805 2.3194 2.2489 2.1691 2.0804 1.9832 1.8777 1.7646 1.6443 1.5171 1.3838 1.2447 1.1006 0.95188 0.79929 0.64341 0.48488 0.32437 0.16252 3.1064e-16
0 0.20189 0.40295 0.60236 0.79929 0.99293 1.1825 1.3672 1.5463 1.719 1.8847 2.0426 2.1922 2.3327 2.4636 2.5844 2.6946 2.7937 2.8814 2.9572 3.0208 3.0721 3.1107 3.1365 3.1495 3.1495 3.1365 3.1107 3.0721 3.0208 2.9572 2.8814 2.7937 2.6946 2.5844 2.4636 2.3327 2.1922 2.0426 1.8847 1.719 1.5463 1.3672 1.1825 0.99293 0.79929 0.60236 0.40295 0.20189 3.859e-16
0 0.24043 0.47988 0.71736 0.95188 1.1825 1.4083 1.6282 1.8415 2.0472 2.2445 2.4326 2.6107 2.778 2.934 3.0778 3.2091 3.3271 3.4315 3.5218 3.5976 3.6586 3.7046 3.7353 3.7507 3.7507 3.7353 3.7046 3.6586 3.5976 3.5218 3.4315 3.3271 3.2091 3.0778 2.934 2.778 2.6107 2.4326 2.2445 2.0472 1.8415 1.6282 1.4083 1.1825 0.95188 0.71736 0.47988 0.24043 4.5957e-16
0 0.27799 0.55484 0.82941 1.1006 1.3672 1.6282 1.8826 2.1291 2.367 2.5951 2.8126 3.0185 3.2119 3.3922 3.5586 3.7103 3.8468 3.9675 4.0719 4.1595 4.2301 4.2832 4.3188 4.3366 4.3366 4.3188 4.2832 4.2301 4.1595 4.0719 3.9675 3.8468 3.7103 3.5586 3.3922 3.2119 3.0185 2.8126 2.5951 2.367 2.1291 1.8826 1.6282 1.3672 1.1006 0.82941 0.55484 0.27799 5.3135e-16
0 0.3144 0.62752 0.93805 1.2447 1.5463 1.8415 2.1291 2.408 2.677 2.935 3.181 3.4138 3.6327 3.8366 4.0247 4.1963 4.3507 4.4872 4.6052 4.7044 4.7841 4.8443 4.8845 4.9047 4.9047 4.8845 4.8443 4.7841 4.7044 4.6052 4.4872 4.3507 4.1963 4.0247 3.8366 3.6327 3.4138 3.181 2.935 2.677 2.408 2.1291 1.8415 1.5463 1.2447 0.93805 0.62752 0.3144 6.0096e-16
0 0.34953 0.69761 1.0428 1.3838 1.719 2.0472 2.367 2.677 2.9761 3.2629 3.5363 3.7952 4.0385 4.2652 4.4743 4.6651 4.8367 4.9884 5.1197 5.2299 5.3186 5.3854 5.4301 5.4525 5.4525 5.4301 5.3854 5.3186 5.2299 5.1197 4.9884 4.8367 4.6651 4.4743 4.2652 4.0385 3.7952 3.5363 3.2629 2.9761 2.677 2.367 2.0472 1.719 1.3838 1.0428 0.69761 0.34953 6.6809e-16
0 0.38321 0.76485 1.1433 1.5171 1.8847 2.2445 2.5951 2.935 3.2629 3.5774 3.8771 4.161 4.4277 4.6762 4.9055 5.1147 5.3028 5.4692 5.6131 5.7339 5.8311 5.9044 5.9535 5.978 5.978 5.9535 5.9044 5.8311 5.7339 5.6131 5.4692 5.3028 5.1147 4.9055 4.6762 4.4277 4.161 3.8771 3.5774 3.2629 2.935 2.5951 2.2445 1.8847 1.5171 1.1433 0.76485 0.38321 7.3247e-16
0 0.41532 0.82894 1.2391 1.6443 2.0426 2.4326 2.8126 3.181 3.5363 3.8771 4.202 4.5096 4.7987 5.0681 5.3166 5.5433 5.7472 5.9275 6.0834 6.2144 6.3198 6.3992 6.4523 6.479 6.479 6.4523 6.3992 6.3198 6.2144 6.0834 5.9275 5.7472 5.5433 5.3166 5.0681 4.7987 4.5096 4.202 3.8771 3.5363 3.181 2.8126 2.4326 2.0426 1.6443 1.2391 0.82894 0.41532 7.9385e-16
0 0.44573 0.88962 1.3299 1.7646 2.1922 2.6107 3.0185 3.4138 3.7952 4.161 4.5096 4.8397 5.15 5.4391 5.7058 5.9491 6.1679 6.3614 6.5288 6.6693 6.7824 6.8677 6.9247 6.9533 6.9533 6.9247 6.8677 6.7824 6.6693 6.5288 6.3614 6.1679 5.9491 5.7058 5.4391 5.15 4.8397 4.5096 4.161 3.7952 3.4138 3.0185 2.6107 2.1922 1.7646 1.3299 0.88962 0.44573 8.5197e-16
0 0.4743 0.94665 1.4151 1.8777 2.3327 2.778 3.2119 3.6327 4.0385 4.4277 4.7987 5.15 5.4801 5.7877 6.0716 6.3304 6.5633 6.7692 6.9473 7.0968 7.2172 7.3079 7.3686 7.399 7.399 7.3686 7.3079 7.2172 7.0968 6.9473 6.7692 6.5633 6.3304 6.0716 5.7877 5.4801 5.15 4.7987 4.4277 4.0385 3.6327 3.2119 2.778 2.3327 1.8777 1.4151 0.94665 0.4743 9.0658e-16
0 0.50092 0.99978 1.4945 1.9832 2.4636 2.934 3.3922 3.8366 4.2652 4.6762 5.0681 5.4391 5.7877 6.1126 6.4124 6.6858 6.9317 7.1492 7.3372 7.4952 7.6223 7.7181 7.7822 7.8143 7.8143 7.7822 7.7181 7.6223 7.4952 7.3372 7.1492 6.9317 6.6858 6.4124 6.1126 5.7877 5.4391 5.0681 4.6762 4.2652 3.8366 3.3922 2.934 2.4636 1.9832 1.4945 0.99978 0.50092 9.5747e-16
0 0.52549 1.0488 1.5678 2.0804 2.5844 3.0778 3.5586 4.0247 4.4743 4.9055 5.3166 5.7058 6.0716 6.4124 6.7268 7.0136 7.2716 7.4998 7.6971 7.8627 7.9961 8.0966 8.1638 8.1975 8.1975 8.1638 8.0966 7.9961 7.8627 7.6971 7.4998 7.2716 7.0136 6.7268 6.4124 6.0716 5.7058 5.3166 4.9055 4.4743 4.0247 3.5586 3.0778 2.5844 2.0804 1.5678 1.0488 0.52549 1.0044e-15
0 0.54789 1.0935 1.6347 2.1691 2.6946 3.2091 3.7103 4.1963 4.6651 5.1147 5.5433 5.9491 6.3304 6.6858 7.0136 7.3127 7.5817 7.8195 8.0252 8.198 8.337 8.4418 8.5119 8.547 8.547 8.5119 8.4418 8.337 8.198 8.0252 7.8195 7.5817 7.3127 7.0136 6.6858 6.3304 5.9491 5.5433 5.1147 4.6651 4.1963 3.7103 3.2091 2.6946 2.1691 1.6347 1.0935 0.54789 1.0472e-15
0 0.56805 1.1338 1.6948 2.2489 2.7937 3.3271 3.8468 4.3507 4.8367 5.3028 5.7472 6.1679 6.5633 6.9317 7.2716 7.5817 7.8606 8.1072 8.3205 8.4995 8.6437 8.7523 8.825 8.8614 8.8614 8.825 8.7523 8.6437 8.4995 8.3205 8.1072 7.8606 7.5817 7.2716 6.9317 6.5633 6.1679 5.7472 5.3028 4.8367 4.3507 3.8468 3.3271 2.7937 2.2489 1.6948 1.1338 0.56805 1.0858e-15
0 0.58587 1.1693 1.748 2.3194 2.8814 3.4315 3.9675 4.4872 4.9884 5.4692 5.9275 6.3614 6.7692 7.1492 7.4998 7.8195 8.1072 8.3615 8.5815 8.7662 8.9149 9.0269 9.1019 9.1394 9.1394 9.1019 9.0269 8.9149 8.7662 8.5815 8.3615 8.1072 7.8195 7.4998 7.1492 6.7692 6.3614 5.9275 5.4692 4.9884 4.4872 3.9675 3.4315 2.8814 2.3194 1.748 1.1693 0.58587 1.1198e-15
0 0.60128 1.2001 1.794 2.3805 2.9572 3.5218 4.0719 4.6052 5.1197 5.6131 6.0834 6.5288 6.9473 7.3372 7.6971 8.0252 8.3205 8.5815 8.8072 8.9968 9.1494 9.2644 9.3413 9.3799 9.3799 9.3413 9.2644 9.1494 8.9968 8.8072 8.5815 8.3205 8.0252 7.6971 7.3372 6.9473 6.5288 6.0834 5.6131 5.1197 4.6052 4.0719 3.5218 2.9572 2.3805 1.794 1.2001 0.60128 1.1493e-15
0 0.61422 1.2259 1.8326 2.4317 3.0208 3.5976 4.1595 4.7044 5.2299 5.7339 6.2144 6.6693 7.0968 7.4952 7.8627 8.198 8.4995 8.7662 8.9968 9.1904 9.3463 9.4638 9.5424 9.5818 9.5818 9.5424 9.4638 9.3463 9.1904 8.9968 8.7662 8.4995 8.198 7.8627 7.4952 7.0968 6.6693 6.2144 5.7339 5.2299 4.7044 4.1595 3.5976 3.0208 2.4317 1.8326 1.2259 0.61422 1.174e-15
0 0.62464 1.2467 1.8637 2.4729 3.0721 3.6586 4.2301 4.7841 5.3186 5.8311 6.3198 6.7824 7.2172 7.6223 7.9961 8.337 8.6437 8.9149 9.1494 9.3463 9.5048 9.6243 9.7042 9.7443 9.7443 9.7042 9.6243 9.5048 9.3463 9.1494 8.9149 8.6437 8.337 7.9961 7.6223 7.2172 6.7824 6.3198 5.8311 5.3186 4.7841 4.2301 3.6586 3.0721 2.4729 1.8637 1.2467 0.62464 1.1939e-15
0 0.63249 1.2624 1.8871 2.504 3.1107 3.7046 4.2832 4.8443 5.3854 5.9044 6.3992 6.8677 7.3079 7.7181 8.0966 8.4418 8.7523 9.0269 9.2644 9.4638 9.6243 9.7453 9.8262 9.8667 9.8667 9.8262 9.7453 9.6243 9.4638 9.2644 9.0269 8.7523 8.4418 8.0966 7.7181 7.3079 6.8677 6.3992 5.9044 5.3854 4.8443 4.2832 3.7046 3.1107 2.504 1.8871 1.2624 0.63249 1.2089e-15
0 0.63774 1.2729 1.9028 2.5248 3.1365 3.7353 4.3188 4.8845 5.4301 5.9535 6.4523 6.9247 7.3686 7.7822 8.1638 8.5119 8.825 9.1019 9.3413 9.5424 9.7042 9.8262 9.9078 9.9487 9.9487 9.9078 9.8262 9.7042 9.5424 9.3413 9.1019 8.825 8.5119 8.1638 7.7822 7.3686 6.9247 6.4523 5.9535 5.4301 4.8845 4.3188 3.7353 3.1365 2.5248 1.9028 1.2729 0.63774 1.219e-15
0 0.64037 1.2781 1.9106 2.5352 3.1495 3.7507 4.3366 4.9047 5.4525 5.978 6.479 6.9533 7.399 7.8143 8.1975 8.547 8.8614 9.1394 9.3799 9.5818 9.7443 9.8667 9.9487 0 0 0 9.8667 9.7443 9.5818 9.3799 9.1394 8.8614 8.547 8.1975 7.8143 7.399 6.9533 6.479 5.978 5.4525 4.9047 4.3366 3.7507 3.1495 2.5352 1.9106 1.2781 0.64037 1.224e-15
0 0.64037 1.2781 1.9106 2.5352 3.1495 3.7507 4.3366 4.9047 5.4525 5.978 6.479 6.9533 7.399 7.8143 8.1975 8.547 8.8614 9.1394 9.3799 9.5818 9.7443 9.8667 9.9487 0 0 0 9.8667 9.7443 9.5818 9.3799 9.1394 8.8614 8.547 8.1975 7.8143 7.399 6.9533 6.479 5.978 5.4525 4.9047 4.3366 3.7507 3.1495 2.5352 1.9106 1.2781 0.64037 1.224e-15
0 0.63774 1.2729 1.9028 2.5248 3.1365 3.7353 4.3188 4.8845 5.4301 5.9535 6.4523 6.9247 7.3686 7.7822 8.1638 8.5119 8.825 9.1019 9.3413 9.5424 9.7042 9.8262 9.9078 0 0 0 9.8262 9.7042 9.5424 9.3413 9.1019 8.825 8.5119 8.1638 7.7822 7.3686 6.9247 6.4523 5.9535 5.4301 4.8845 4.3188 3.7353 3.1365 2.5248 1.9028 1.2729 0.63774 1.219e-15
0 0.63249 1.2624 1.8871 2.504 3.1107 3.7046 4.2832 4.8443 5.3854 5.9044 6.3992 6.8677 7.3079 7.7181 8.0966 8.4418 8.7523 9.0269 9.2644 9.4638 9.6243 9.7453 9.8262 9.8667 9.8667 9.8262 9.7453 9.6243 9.4638 9.2644 9.0269 8.7523 8.4418 8.0966 7.7181 7.3079 6.8677 6.3992 5.9044 5.3854 4.8443 4.2832 3.7046 3.1107 2.504 1.8871 1.2624 0.63249 1.2089e-15
0 0.62464 1.2467 1.8637 2.4729 3.0721 3.6586 4.2301 4.7841 5.3186 5.8311 6.3198 6.7824 7.2172 7.6223 7.9961 8.337 8.6437 8.9149 9.1494 9.3463 9.5048 9.6243 9.7042 9.7443 9.7443 9.7042 9.6243 9.5048 9.3463 9.1494 8.9149 8.6437 8.337 7.9961 7.6223 7.2172 6.7824 6.3198 5.8311 5.3186 4.7841 4.2301 3.6586 3.0721 2.4729 1.8637 1.2467 0.62464 1.1939e-15
0 0.61422 1.2259 1.8326 2.4317 3.0208 3.5976 4.1595 4.7044 5.2299 5.7339 6.2144 6.6693 7.0968 7.4952 7.8627 8.198 8.4995 8.7662 8.9968 9.1904 9.3463 9.4638 9.5424 9.5818 9.5818 9.5424 9.4638 9.3463 9.1904 8.9968 8.7662 8.4995 8.198 7.8627 7.4952 7.0968 6.6693 6.2144 5.7339 5.2299 4.7044 4.1595 3.5976 3.0208 2.4317 1.8326 1.2259 0.61422 1.174e-15
0 0.60128 1.2001 1.794 2.3805 2.9572 3.5218 4.0719 4.6052 5.1197 5.6131 6.0834 6.5288 6.9473 7.3372 7.6971 8.0252 8.3205 8.5815 8.8072 8.9968 9.1494 9.2644 9.3413 9.3799 9.3799 9.3413 9.2644 9.1494 8.9968 8.8072 8.5815 8.3205 8.0252 7.6971 7.3372 6.9473 6.5288 6.0834 5.6131 5.1197 4.6052 4.0719 3.5218 2.9572 2.3805 1.794 1.2001 0.60128 1.1493e-15
0 0.58587 1.1693 1.748 2.3194 2.8814 3.4315 3.9675 4.4872 4.9884 5.4692 5.9275 6.3614 6.7692 7.1492 7.4998 7.8195 8.1072 8.3615 8.5815 8.7662 8.9149 9.0269 9.1019 9.1394 9.1394 9.1019 9.0269 8.9149 8.7662 8.5815 8.3615 8.1072 7.8195 7.4998 7.1492 6.7692 6.3614 5.9275 5.4692 4.9884 4.4872 3.9675 3.4315 2.8814 2.3194 1.748 1.1693 0.58587 1.1198e-15
0 0.56805 1.1338 1.6948 2.2489 2.7937 3.3271 3.8468 4.3507 4.8367 5.3028 5.7472 6.1679 6.5633 6.9317 7.2716 7.5817 7.8606 8.1072 8.3205 8.4995 8.6437 8.7523 8.825 8.8614 8.8614 8.825 8.7523 8.6437 8.4995 8.3205 8.1072 7.8606 7.5817 7.2716 6.9317 6.5633 6.1679 5.7472 5.3028 4.8367 4.3507 3.8468 3.3271 2.7937 2.2489 1.6948 1.1338 0.56805 1.0858e-15
0 0.54789 1.0935 1.6347 2.1691 2.6946 3.2091 3.7103 4.1963 4.6651 5.1147 5.5433 5.9491 6.3304 6.6858 7.0136 7.3127 7.5817 7.8195 8.0252 8.198 8.337 8.4418 8.5119 8.547 8.547 8.5119 8.4418 8.337 8.198 8.0252 7.8195 7.5817 7.3127 7.0136 6.6858 6.3304 5.9491 5.5433 5.1147 4.6651 4.1963 3.7103 3.2091 2.6946 2.1691 1.6347 1.0935 0.54789 1.0472e-15
0 0.52549 1.0488 1.5678 2.0804 2.5844 3.0778 3.5586 4.0247 4.4743 4.9055 5.3166 5.7058 6.0716 6.4124 6.7268 7.0136 7.2716 7.4998 7.6971 7.8627 7.9961 8.0966 8.1638 8.1975 8.1975 8.1638 8.0966 7.9961 7.8627 7.6971 7.4998 7.2716 7.0136 6.7268 6.4124 6.0716 5.7058 5.3166 4.9055 4.4743 4.0247 3.5586 3.0778 2.5844 2.0804 1.5678 1.0488 0.52549 1.0044e-15
0 0.50092 0.99978 1.4945 1.9832 2.4636 2.934 3.3922 3.8366 4.2652 4.6762 5.0681 5.4391 5.7877 6.1126 6.4124 6.6858 6.9317 7.1492 7.3372 7.4952 7.6223 7.7181 7.7822 7.8143 7.8143 7.7822 7.7181 7.6223 7.4952 7.3372 7.1492 6.9317 6.6858 6.4124 6.1126 5.7877 5.4391 5.0681 4.6762 4.2652 3.8366 3.3922 2.934 2.4636 1.9832 1.4945 0.99978 0.50092 9.5747e-16
0 0.4743 0.94665 1.4151 1.8777 2.3327 2.778 3.2119 3.6327 4.0385 4.4277 4.7987 5.15 5.4801 5.7877 6.0716 6.3304 6.5633 6.7692 6.9473 7.0968 7.2172 7.3079 7.3686 7.399 7.399 7.3686 7.3079 7.2172 7.0968 6.9473 6.7692 6.5633 6.3304 6.0716 5.7877 5.4801 5.15 4.7987 4.4277 4.0385 3.6327 3.2119 2.778 2.3327 1.8777 1.4151 0.94665 0.4743 9.0658e-16
0 0.44573 0.88962 1.3299 1.7646 2.1922 2.6107 3.0185 3.4138 3.7952 4.161 4.5096 4.8397 5.15 5.4391 5.7058 5.9491 6.1679 6.3614 6.5288 6.6693 6.7824 6.8677 6.9247 6.9533 6.9533 6.9247 6.8677 6.7824 6.6693 6.5288 6.3614 6.1679 5.9491 5.7058 5.4391 5.15 4.8397 4.5096 4.161 3.7952 3.4138 3.0185 2.6107 2.1922 1.7646 1.3299 0.88962 0.44573 8.5197e-16
0 0.41532 0.82894 1.2391 1.6443 2.0426 2.4326 2.8126 3.181 3.5363 3.8771 4.202 4.5096 4.7987 5.0681 5.3166 5.5433 5.7472 5.9275 6.0834 6.2144 6.3198 6.3992 6.4523 6.479 6.479 6.4523 6.3992 6.3198 6.2144 6.0834 5.9275 5.7472 5.5433 5.3166 5.0681 4.7987 4.5096 4.202 3.8771 3.5363 3.181 2.8126 2.4326 2.0426 1.6443 1.2391 0.82894 0.41532 7.9385e-16
0 0.38321 0.76485 1.1433 1.5171 1.8847 2.2445 2.5951 2.935 3.2629 3.5774 3.8771 4.161 4.4277 4.6762 4.9055 5.1147 5.3028 5.4692 5.6131 5.7339 5.8311 5.9044 5.9535 5.978 5.978 5.9535 5.9044 5.8311 5.7339 5.6131 5.4692 5.3028 5.1147 4.9055 4.6762 4.4277 4.161 3.8771 3.5774 3.2629 2.935 2.5951 2.2445 1.8847 1.5171 1.1433 0.76485 0.38321 7.3247e-16
0 0.34953 0.69761 1.0428 1.3838 1.719 2.0472 2.367 2.677 2.9761 3.2629 3.5363 3.7952 4.0385 4.2652 4.4743 4.6651 4.8367 4.9884 5.1197 5.2299 5.3186 5.3854 5.4301 5.4525 5.4525 5.4301 5.3854 5.3186 5.2299 5.1197 4.9884 4.8367 4.6651 4.4743 4.2652 4.0385 3.7952 3.5363 3.2629 2.9761 2.677 2.367 2.0472 1.719 1.3838 1.0428 0.69761 0.34953 6.6809e-16
0 0.3144 0.62752 0.93805 1.2447 1.5463 1.8415 2.1291 2.408 2.677 2.935 3.181 3.4138 3.6327 3.8366 4.0247 4.1963 4.3507 4.4872 4.6052 4.7044 4.7841 4.8443 4.8845 4.9047 4.9047 4.8845 4.8443 4.7841 4.7044 4.6052 4.4872 4.3507 4.1963 4.0247 3.8366 3.6327 3.4138 3.181 2.935 2.677 2.408 2.1291 1.8415 1.5463 1.2447 0.93805 0.62752 0.3144 6.0096e-16
0 0.27799 0.55484 0.82941 1.1006 1.3672 1.6282 1.8826 2.1291 2.367 2.5951 2.8126 3.0185 3.2119 3.3922 3.5586 3.7103 3.8468 3.9675 4.0719 4.1595 4.2301 4.2832 4.3188 4.3366 4.3366 4.3188 4.2832 4.2301 4.1595 4.0719 3.9675 3.8468 3.7103 3.5586 3.3922 3.2119 3.0185 2.8126 2.5951 2.367 2.1291 1.8826 1.6282 1.3672 1.1006 0.82941 0.55484 0.27799 5.3135e-16
0 0.24043 0.47988 0.71736 0.95188 1.1825 1.4083 1.6282 1.8415 2.0472 2.2445 2.4326 2.6107 2.778 2.934 3.0778 3.2091 3.3271 3.4315 3.5218 3.5976 3.6586 3.7046 3.7353 3.7507 3.7507 3.7353 3.7046 3.6586 3.5976 3.5218 3.4315 3.3271 3.2091 3.0778 2.934 2.778 2.6107 2.4326 2.2445 2.0472 1.8415 1.6282 1.4083 1.1825 0.95188 0.71736 0.47988 0.24043 4.5957e-16
0 0.20189 0.40295 0.60236 0.79929 0.99293 1.1825 1.3672 1.5463 1.719 1.8847 2.0426 2.1922 2.3327 2.4636 2.5844 2.6946 2.7937 2.8814 2.9572 3.0208 3.0721 3.1107 3.1365 3.1495 3.1495 3.1365 3.1107 3.0721 3.0208 2.9572 2.8814 2.7937 2.6946 2.5844 2.4636 2.3327 2.1922 2.0426 1.8847 1.719 1.5463 1.3672 1.1825 0.99293 0.79929 0.60236 0.40295 0.20189 3.859e-16
0 0.16252 0.32437 0.48488 0.64341 0.79929 0.95188 1.1006 1.2447 1.3838 1.5171 1.6443 1.7646 1.8777 1.9832 2.0804 2.1691 2.2489 2.3194 2.3805 2.4317 2.4729 2.504 2.5248 2.5352 2.5352 2.5248 2.504 2.4729 2.4317 2.3805 2.3194 2.2489 2.1691 2.0804 1.9832 1.8777 1.7646 1.6443 1.5171 1.3838 1.2447 1.1006 0.95188 0.79929 0.64341 0.48488 0.32437 0.16252 3.1064e-16
0 0.12248 0.24445 0.36542 0.48488 0.60236 0.71736 0.82941 0.93805 1.0428 1.1433 1.2391 1.3299 1.4151 1.4945 1.5678 1.6347 1.6948 1.748 1.794 1.8326 1.8637 1.8871 1.9028 1.9106 1.9106 1.9028 1.8871 1.8637 1.8326 1.794 1.748 1.6948 1.6347 1.5678 1.4945 1.4151 1.3299 1.2391 1.1433 1.0428 0.93805 0.82941 0.71736 0.60236 0.48488 0.36542 0.24445 0.12248 2.341e-16
0 0.081931 0.16353 0.24445 0.32437 0.40295 0.47988 0.55484 0.62752 0.69761 0.76485 0.82894 0.88962 0.94665 0.99978 1.0488 1.0935 1.1338 1.1693 1.2001 1.2259 1.2467 1.2624 1.2729 1.2781 1.2781 1.2729 1.2624 1.2467 1.2259 1.2001 1.1693 1.1338 1.0935 1.0488 0.99978 0.94665 0.88962 0.82894 0.76485 0.69761 0.62752 0.55484 0.47988 0.40295 0.32437 0.24445 0.16353 0.081931 1.566e-16
0 0.04105 0.081931 0.12248 0.16252 0.20189 0.24043 0.27799 0.3144 0.34953 0.38321 0.41532 0.44573 0.4743 0.50092 0.52549 0.54789 0.56805 0.58587 0.60128 0.61422 0.62464 0.63249 0.63774 0.64037 0.64037 0.63774 0.63249 0.62464 0.61422 0.60128 0.58587 0.56805 0.54789 0.52549 0.50092 0.4743 0.44573 0.41532 0.38321 0.34953 0.3144 0.27799 0.24043 0.20189 0.16252 0.12248 0.081931 0.04105 7.8463e-17
0 7.8463e-17 1.566e-16 2.341e-16 3.1064e-16 3.859e-16 4.5957e-16 5.3135e-16 6.0096e-16 6.6809e-16 7.3247e-16 7.9385e-16 8.5197e-16 9.0658e-16 9.5747e-16 1.0044e-15 1.0472e-15 1.0858e-15 1.1198e-15 1.1493e-15 1.174e-15 1.1939e-15 1.2089e-15 1.219e-15 1.224e-15 1.224e-15 1.219e-15 1.2089e-15 1.1939e-15 1.174e-15 1.1493e-15 1.1198e-15 1.0858e-15 1.0472e-15 1.0044e-15 9.5747e-16 9.0658e-16 8.5197e-16 7.9385e-16 7.3247e-16 6.6809e-16 6.0096e-16 5.3135e-16 4.5957e-16 3.859e-16 3.1064e-16 2.341e-16 1.566e-16 7.8463e-17 1.4998e-31
